315338.461716 7484163.356390 1806.048828
315374.495265 7484182.371805 1804.996826
315410.528813 7484201.387220 1803.944824
311623.274095 7482887.875822 1725.291931
311664.060510 7482895.003607 1721.744263
311705.903041 7482903.557551 1716.971558
311746.461853 7482906.909676 1714.716064
311788.165634 7482912.405788 1711.010010
311828.683816 7482915.628866 1709.580383
311870.404337 7482920.963890 1706.310303
311910.952125 7482926.826316 1705.683838
311952.656114 7482933.481145 1702.450256
311993.489334 7482942.586516 1701.519165
312034.638078 7482951.355031 1699.627991
312075.083479 7482965.611808 1701.106506
312115.092677 7482977.973478 1703.298828
312155.016424 7482996.547516 1707.987000
312194.711189 7483012.699770 1712.871582
312234.946824 7483033.490153 1718.411133
312275.137551 7483052.280949 1723.854248
312316.353368 7483073.699181 1727.873962
312357.587961 7483093.703162 1732.047180
312399.566332 7483115.299171 1735.616577
312441.389241 7483136.078479 1740.707642
312484.381925 7483155.958268 1743.130676
312527.329812 7483175.181452 1746.643372
312571.083603 7483195.476312 1747.019409
312615.049036 7483215.186451 1747.866089
312659.461685 7483234.716234 1746.345032
312704.058442 7483253.831277 1745.714600
312748.856973 7483272.726261 1744.000488
312793.884717 7483291.265095 1742.722717
312839.112677 7483309.346188 1739.247803
312884.553291 7483327.151551 1736.644775
312930.125624 7483344.383109 1730.791260
312976.032316 7483361.152554 1724.860657
313021.967472 7483377.718400 1719.162903
313068.203530 7483393.729814 1712.359253
313114.703280 7483409.911354 1710.107788
313161.306309 7483425.660475 1706.164185
313208.564656 7483441.454918 1706.489441
313255.671561 7483457.217214 1706.517334
313303.748642 7483472.793604 1709.367615
313351.476840 7483488.631867 1712.494934
313400.277035 7483503.843915 1715.083069
313448.632339 7483519.465898 1718.744812
313498.056426 7483534.005304 1718.441284
313547.005179 7483549.108884 1720.914307
313597.078036 7483563.566983 1722.436646
313646.487251 7483578.619005 1726.009521
313697.034033 7483593.216569 1730.217285
313746.771095 7483608.373117 1735.094360
313797.749207 7483622.249973 1735.799316
313848.110900 7483635.859846 1734.681763
313899.514769 7483649.136028 1732.773193
313950.461515 7483661.613428 1727.851807
314001.810853 7483675.640740 1730.343567
314052.216888 7483690.364766 1733.925232
314102.701113 7483706.472815 1745.648254
314151.944500 7483724.407470 1759.013977
314201.773275 7483741.463167 1772.084717
314250.738802 7483759.679373 1783.771423
314301.016628 7483775.226433 1786.500061
314350.602445 7483791.267783 1788.827209
314400.851439 7483806.433182 1786.741394
314450.386210 7483821.942616 1785.442871
314500.121567 7483837.397387 1781.287842
314549.599757 7483851.891128 1775.201416
314598.258278 7483868.428587 1771.723694
314646.699606 7483883.977552 1766.857178
314693.675874 7483902.589451 1767.461426
314740.468527 7483920.747534 1767.474792
314785.755665 7483941.196376 1771.766541
314831.127517 7483961.110645 1774.269470
314874.996062 7483982.112848 1778.878967
314919.084624 7484002.874978 1782.270508
314961.512720 7484024.288548 1787.748718
315004.304312 7484045.410312 1791.403198
315045.490951 7484067.665893 1799.476746
315086.979166 7484089.505396 1804.547974
315126.752852 7484108.885887 1804.809326
315166.772937 7484128.111614 1803.826538
315204.860621 7484146.164364 1801.204834
315243.494335 7484165.866645 1802.010437
315280.450777 7484184.328643 1800.501892
315318.630049 7484205.093949 1803.260559
315354.663598 7484224.109364 1802.208557
311519.820664 7482900.510530 1737.091797
311603.976687 7482930.034739 1729.058716
311645.819219 7482938.588682 1724.286011
311687.661750 7482947.142626 1719.513306
311729.365531 7482952.638739 1715.807251
311771.069313 7482958.134851 1712.101196
311812.789834 7482963.469875 1708.831116
311854.510354 7482968.804899 1705.561035
311896.214343 7482975.459728 1702.327454
311937.918332 7482982.114556 1699.093872
311979.067076 7482990.883071 1697.202698
312020.215820 7482999.651586 1695.311523
312060.225018 7483012.013256 1697.503845
312100.234215 7483024.374927 1699.696167
312139.928980 7483040.527182 1704.580750
312179.623744 7483056.679436 1709.465332
312219.814470 7483075.470232 1714.908447
312260.005197 7483094.261029 1720.351563
312301.239790 7483114.265009 1724.524780
312342.474382 7483134.268990 1728.697998
312384.297291 7483155.048298 1733.789063
312426.120200 7483175.827607 1738.880127
312469.068088 7483195.050790 1742.392822
312512.015976 7483214.273974 1745.905518
312555.981409 7483233.984114 1746.752197
312599.946842 7483253.694254 1747.598877
312644.543599 7483272.809297 1746.968445
312689.140355 7483291.924341 1746.338013
312734.168099 7483310.463175 1745.060242
312779.195843 7483329.002009 1743.782471
312824.636457 7483346.807372 1741.179443
312870.077071 7483364.612735 1738.576416
312915.983763 7483381.382180 1732.645813
312961.890455 7483398.151625 1726.715210
313008.126512 7483414.163039 1719.911560
313054.362570 7483430.174454 1713.107910
313100.965599 7483445.923574 1709.164307
313147.568628 7483461.672695 1705.220703
313194.675533 7483477.434991 1705.248596
313241.782438 7483493.197287 1705.276489
313289.510636 7483509.035550 1708.403809
313337.238835 7483524.873813 1711.531128
313385.594139 7483540.495796 1715.192871
313433.949444 7483556.117778 1718.854614
313482.898196 7483571.221358 1721.327637
313531.846949 7483586.324939 1723.800659
313581.256165 7483601.376961 1727.373535
313630.665380 7483616.428984 1730.946411
313680.402443 7483631.585532 1735.823486
313730.139506 7483646.742079 1740.700562
313780.501199 7483660.351953 1739.583008
313830.862892 7483673.961826 1738.465454
313881.809638 7483686.439226 1733.544067
313932.756385 7483698.916626 1728.622681
313983.162419 7483713.640652 1732.204346
314033.568453 7483728.364677 1735.786011
314082.811840 7483746.299332 1749.151733
314132.055226 7483764.233987 1762.517456
314181.020754 7483782.450194 1774.204163
314229.986281 7483800.666400 1785.890869
314279.572098 7483816.707751 1788.218018
314329.157914 7483832.749102 1790.545166
314378.692686 7483848.258536 1789.246643
314428.227457 7483863.767970 1787.948120
314477.705647 7483878.261711 1781.861694
314527.183836 7483892.755451 1775.775269
314575.625165 7483908.304417 1770.908752
314624.066493 7483923.853382 1766.042236
314670.859146 7483942.011465 1766.055603
314717.651798 7483960.169548 1766.068970
314763.023651 7483980.083817 1768.571899
314808.395503 7483999.998087 1771.074829
314852.484065 7484020.760216 1774.466370
314896.572626 7484041.522346 1777.857910
314939.364219 7484062.644110 1781.512390
314982.155811 7484083.765874 1785.166870
315023.644026 7484105.605378 1790.238098
315065.132241 7484127.444881 1795.309326
315105.152326 7484146.670609 1794.326538
315145.172410 7484165.896336 1793.343750
315183.806124 7484185.598616 1794.149353
315222.439837 7484205.300897 1794.954956
315260.619110 7484226.066203 1797.713623
315298.798383 7484246.831508 1800.472290
315336.957514 7484267.653266 1801.715393
315375.116644 7484288.475023 1802.958496
311584.843852 7482972.367834 1732.784729
311626.686383 7482980.921778 1728.012024
311668.689894 7482989.972049 1724.312927
311710.393676 7482995.468162 1720.606873
311753.559721 7483003.144937 1715.102234
311795.280242 7483008.479960 1711.832153
311837.751339 7483015.770987 1707.314270
311879.455328 7483022.425816 1704.080688
311921.605271 7483030.255242 1699.743408
311962.754015 7483039.023757 1697.852234
312003.966133 7483048.155455 1695.862061
312043.975331 7483060.517125 1698.054382
312084.517227 7483071.840599 1698.403442
312124.211991 7483087.992854 1703.288025
312164.218278 7483102.172970 1706.626465
312204.409005 7483120.963766 1712.069580
312244.843105 7483137.621300 1716.258301
312286.077697 7483157.625280 1720.431519
312327.278514 7483176.012825 1724.858093
312369.101423 7483196.792134 1729.949158
312410.969694 7483216.359459 1735.473694
312453.917581 7483235.582643 1738.986389
312496.948666 7483253.923266 1742.947510
312540.914099 7483273.633406 1743.794189
312585.102532 7483292.654318 1744.742249
312629.699289 7483311.769361 1744.111816
312674.484777 7483330.398268 1743.919617
312719.512521 7483348.937102 1742.641846
312764.707718 7483367.107966 1741.830444
312810.148332 7483384.913329 1739.227417
312855.664042 7483402.624596 1738.375183
312901.570733 7483419.394041 1732.444580
312947.727514 7483435.871589 1727.575623
312993.963572 7483451.883003 1720.771973
313040.611136 7483467.200186 1712.843872
313087.214165 7483482.949307 1708.900269
313134.009993 7483498.201910 1703.964111
313181.116898 7483513.964206 1703.992004
313228.133470 7483529.571035 1703.638428
313275.861669 7483545.409298 1706.765747
313323.332450 7483561.022967 1708.365234
313371.687754 7483576.644950 1712.026978
313419.556227 7483592.605985 1716.432800
313468.504980 7483607.709566 1718.905823
313516.834420 7483623.482690 1723.468689
313566.243636 7483638.534712 1727.041565
313614.942667 7483654.184701 1731.803162
313664.679729 7483669.341249 1736.680237
313713.726055 7483684.698973 1740.811035
313764.087748 7483698.308846 1739.693481
313813.886803 7483711.762694 1737.995300
313864.833550 7483724.240094 1733.073914
313915.080635 7483736.833665 1729.224548
313965.486669 7483751.557691 1732.806213
314015.228409 7483766.126848 1734.547852
314064.471795 7483784.061503 1747.913574
314112.673073 7483803.334695 1761.200562
314161.638601 7483821.550902 1772.887268
314209.354671 7483842.021280 1787.036560
314258.940488 7483858.062631 1789.363708
314307.581854 7483875.292366 1793.320923
314357.116626 7483890.801800 1792.022400
314406.150003 7483906.048446 1789.814270
314455.628192 7483920.542187 1783.727844
314504.739567 7483934.109880 1776.655212
314553.180896 7483949.658846 1771.788696
314601.411604 7483963.955766 1765.702087
314648.204256 7483982.113849 1765.715454
314695.021927 7483998.819038 1763.822998
314740.393780 7484018.733307 1766.325928
314785.826385 7484038.177361 1768.455017
314829.914947 7484058.939491 1771.846558
314874.383710 7484079.080369 1773.854553
314917.175302 7484100.202133 1777.509033
314960.707767 7484119.672906 1777.613098
315002.195983 7484141.512410 1782.684326
315044.426510 7484160.865745 1781.725281
315084.446594 7484180.091472 1780.742493
315125.081307 7484201.100936 1781.699585
315163.715021 7484220.803217 1782.505188
315202.806235 7484242.285775 1784.686279
315240.985508 7484263.051081 1787.444946
315278.853134 7484285.794089 1793.957947
315317.012264 7484306.615847 1795.201050
311483.108030 7482986.799874 1745.937012
311565.711016 7483014.700930 1736.510742
311607.714527 7483023.751201 1732.811646
311649.718039 7483032.801472 1729.112549
311692.884084 7483040.478247 1723.607910
311736.050130 7483048.155022 1718.103271
311778.521227 7483055.446049 1713.585388
311820.992323 7483062.737076 1709.067505
311863.142267 7483070.566502 1704.730225
311905.292211 7483078.395928 1700.392944
311946.504328 7483087.527626 1698.402771
311987.716446 7483096.659324 1696.412598
312028.258342 7483107.982798 1696.761658
312068.800238 7483119.306271 1697.110718
312108.806525 7483133.486387 1700.449158
312148.812813 7483147.666503 1703.787598
312189.246912 7483164.324037 1707.976318
312229.681012 7483180.981571 1712.165039
312270.881829 7483199.369116 1716.591614
312312.082645 7483217.756660 1721.018188
312353.950916 7483237.323986 1726.542725
312395.819187 7483256.891312 1732.067261
312438.850272 7483275.231935 1736.028381
312481.881356 7483293.572558 1739.989502
312526.069789 7483312.593470 1740.937561
312570.258222 7483331.614382 1741.885620
312615.043710 7483350.243289 1741.693420
312659.829198 7483368.872195 1741.501221
312705.024395 7483387.043059 1740.689819
312750.219593 7483405.213923 1739.878418
312795.735302 7483422.925190 1739.026184
312841.251012 7483440.636458 1738.173950
312887.407793 7483457.114005 1733.304993
312933.564574 7483473.591553 1728.436035
312980.212138 7483488.908735 1720.507935
313026.859702 7483504.225918 1712.579834
313073.655530 7483519.478521 1707.643677
313120.451357 7483534.731125 1702.707520
313167.467930 7483550.337954 1702.353943
313214.484503 7483565.944783 1702.000366
313261.955284 7483581.558453 1703.599854
313309.426064 7483597.172122 1705.199341
313357.294538 7483613.133157 1709.605164
313405.163011 7483629.094193 1714.010986
313453.492451 7483644.867317 1718.573853
313501.821891 7483660.640440 1723.136719
313550.520922 7483676.290429 1727.898315
313599.219953 7483691.940419 1732.659912
313648.266279 7483707.298142 1736.790710
313697.312604 7483722.655866 1740.921509
313747.111660 7483736.109714 1739.223328
313796.910715 7483749.563562 1737.525146
313847.157800 7483762.157133 1733.675781
313897.404886 7483774.750704 1729.826416
313947.146625 7483789.319861 1731.568054
313996.888365 7483803.889018 1733.309692
314045.089642 7483823.162210 1746.596680
314093.290920 7483842.435403 1759.883667
314141.006991 7483862.905781 1774.032959
314188.723062 7483883.376159 1788.182251
314237.364428 7483900.605894 1792.139465
314286.005794 7483917.835629 1796.096680
314335.039171 7483933.082276 1793.888550
314384.072548 7483948.328922 1791.680420
314433.183923 7483961.896616 1784.607788
314482.295298 7483975.464309 1777.535156
314530.526006 7483989.761229 1771.448547
314578.756714 7484004.058149 1765.361938
314625.574385 7484020.763338 1763.469482
314672.392056 7484037.468527 1761.577026
314717.824662 7484056.912581 1763.706116
314763.257268 7484076.356636 1765.835205
314807.726031 7484096.497514 1767.843201
314852.194794 7484116.638392 1769.851196
314895.727259 7484136.109166 1769.955261
314939.259724 7484155.579939 1770.059326
314981.490251 7484174.933274 1769.100281
315023.720779 7484194.286608 1768.141235
315064.355491 7484215.296072 1769.098328
315104.990204 7484236.305537 1770.055420
315144.081419 7484257.788095 1772.236511
315183.172633 7484279.270653 1774.417603
315221.040259 7484302.013662 1780.930603
315258.907885 7484324.756670 1787.443604
315341.764715 7484372.096607 1789.892334
311545.033033 7483054.877484 1741.432983
311587.036545 7483063.927755 1737.733887
311633.096111 7483074.185923 1732.780396
311676.262157 7483081.862698 1727.275757
311718.284597 7483092.070463 1722.188721
311760.755694 7483099.361490 1717.670837
311803.937732 7483108.672921 1711.071899
311846.087676 7483116.502347 1706.734619
311888.518243 7483125.593433 1701.574829
311929.730361 7483134.725131 1699.584656
311971.284870 7483144.331416 1696.522888
312011.826766 7483155.654890 1696.871948
312053.084229 7483166.442031 1694.589722
312093.090516 7483180.622147 1697.928162
312133.516806 7483193.403688 1699.303833
312173.950906 7483210.061222 1703.492554
312214.297712 7483225.156156 1707.809570
312255.498528 7483243.543701 1712.236145
312296.723846 7483260.433727 1717.102234
312338.592118 7483280.001053 1722.626770
312380.571572 7483297.131924 1728.527771
312423.602657 7483315.472547 1732.488892
312466.869205 7483333.970633 1736.625305
312511.057638 7483352.991545 1737.573364
312555.354053 7483371.402413 1739.467773
312600.139541 7483390.031320 1739.275574
312645.234001 7483408.006961 1738.851624
312690.429198 7483426.177825 1738.040222
312735.966261 7483443.726565 1736.509949
312781.481970 7483461.437832 1735.657715
312826.974223 7483479.076657 1736.329224
312873.131004 7483495.554204 1731.460266
312919.554594 7483511.614897 1726.757629
312966.202158 7483526.932079 1718.829529
313013.177173 7483541.750580 1711.202271
313059.973000 7483557.003183 1706.266113
313106.830570 7483572.133639 1702.463135
313153.847143 7483587.740468 1702.109558
313200.748266 7483603.301099 1702.002136
313248.219047 7483618.914768 1703.601624
313295.551490 7483634.161853 1703.857300
313343.419963 7483650.122889 1708.263123
313391.088296 7483665.362829 1709.804382
313439.417736 7483681.135953 1714.367249
313487.171578 7483697.083964 1718.999512
313535.870610 7483712.733953 1723.761108
313583.774869 7483729.098653 1729.914612
313632.821194 7483744.456376 1734.045410
313681.109472 7483760.296340 1738.648743
313730.908528 7483773.750188 1736.950562
313779.888105 7483787.894247 1737.168457
313830.135191 7483800.487818 1733.319092
313879.538235 7483813.609907 1731.146484
313929.279974 7483828.179064 1732.888123
313978.240779 7483842.898816 1734.276062
314026.442057 7483862.172008 1747.563049
314073.876771 7483881.843694 1758.924194
314121.592842 7483902.314072 1773.073486
314168.667310 7483923.166671 1785.080078
314217.308677 7483940.396406 1789.037292
314265.144703 7483958.443953 1793.581360
314314.178080 7483973.690600 1791.373230
314362.220827 7483990.294986 1791.931641
314411.332202 7484003.862680 1784.859009
314459.348049 7484019.249210 1782.299194
314507.578757 7484033.546130 1776.212585
314555.147118 7484048.630363 1772.744751
314601.964789 7484065.335552 1770.852295
314649.058591 7484079.637064 1765.856018
314694.491197 7484099.081118 1767.985107
314740.667050 7484114.639286 1764.357727
314785.135813 7484134.780164 1766.365723
314830.230201 7484152.843159 1765.236328
314873.762666 7484172.313932 1765.340393
314918.077083 7484190.385534 1763.357300
314960.307610 7484209.738869 1762.398254
315003.573414 7484228.411174 1760.422363
315044.208127 7484249.420638 1761.379456
315086.021427 7484272.922264 1765.259644
315125.112642 7484294.404822 1767.440735
315165.914130 7484318.908670 1769.838684
315203.781756 7484341.651679 1776.351685
311433.919543 7483060.319460 1756.447754
311524.355051 7483095.054038 1746.355225
311616.474183 7483115.570375 1736.448242
311658.496624 7483125.778140 1731.361206
311700.519064 7483135.985905 1726.274170
311743.701103 7483145.297336 1719.675232
311786.883141 7483154.608767 1713.076294
311829.313708 7483163.699853 1707.916504
311871.744275 7483172.790939 1702.756714
311913.298784 7483182.397223 1699.694946
311954.853293 7483192.003508 1696.633179
311996.110756 7483202.790649 1694.350952
312037.368220 7483213.577791 1692.068726
312077.794510 7483226.359332 1693.444397
312118.220800 7483239.140873 1694.820068
312158.567605 7483254.235807 1699.137085
312198.914411 7483269.330741 1703.454102
312240.139729 7483286.220767 1708.320190
312281.365048 7483303.110793 1713.186279
312323.344503 7483320.241664 1719.087280
312365.323957 7483337.372535 1724.988281
312408.590506 7483355.870622 1729.124695
312451.857054 7483374.368708 1733.261108
312496.153469 7483392.779576 1735.155518
312540.449884 7483411.190444 1737.049927
312585.544344 7483429.166085 1736.625977
312630.638803 7483447.141727 1736.202026
312676.175866 7483464.690467 1734.671753
312721.712929 7483482.239206 1733.141479
312767.205181 7483499.878031 1733.812988
312812.697434 7483517.516856 1734.484497
312859.121024 7483533.577548 1729.781860
312905.544613 7483549.638241 1725.079224
312952.519628 7483564.456741 1717.451965
312999.494643 7483579.275242 1709.824707
313046.352213 7483594.405698 1706.021729
313093.209782 7483609.536153 1702.218750
313140.110906 7483625.096784 1702.111328
313187.012029 7483640.657414 1702.003906
313234.344472 7483655.904499 1702.259583
313281.676915 7483671.151585 1702.515259
313329.345248 7483686.391525 1704.056519
313377.013581 7483701.631465 1705.597778
313424.767424 7483717.579476 1710.230042
313472.521266 7483733.527487 1714.862305
313520.425525 7483749.892187 1721.015808
313568.329784 7483766.256887 1727.169312
313616.618062 7483782.096851 1731.772644
313664.906340 7483797.936814 1736.375977
313713.885918 7483812.080873 1736.593872
313762.865496 7483826.224933 1736.811768
313812.268540 7483839.347021 1734.639160
313861.671584 7483852.469110 1732.466553
313910.632389 7483867.188862 1733.854492
313959.593193 7483881.908614 1735.242432
314007.027907 7483901.580300 1746.603577
314054.462622 7483921.251986 1757.964722
314101.537090 7483942.104585 1769.971313
314148.611559 7483962.957184 1781.977905
314196.447585 7483981.004731 1786.521973
314244.283612 7483999.052278 1791.066040
314292.326359 7484015.656664 1791.624451
314340.369105 7484032.261051 1792.182861
314388.384953 7484047.647581 1789.623047
314436.400800 7484063.034111 1787.063232
314483.969161 7484078.118344 1783.595398
314531.537522 7484093.202577 1780.127563
314578.631324 7484107.504089 1775.131287
314625.725127 7484121.805600 1770.135010
314671.900979 7484137.363768 1766.507629
314718.076832 7484152.921935 1762.880249
314763.171220 7484170.984930 1761.750854
314808.265608 7484189.047926 1760.621460
314852.580025 7484207.119528 1758.638367
314896.894442 7484225.191130 1756.655273
314940.160246 7484243.863435 1754.679382
314983.426050 7484262.535740 1752.703491
315025.239350 7484286.037365 1756.583679
315067.052650 7484309.538990 1760.463867
315107.854138 7484334.042839 1762.861816
315148.655627 7484358.546688 1765.259766
315187.320376 7484382.824358 1768.486450
315225.985126 7484407.102028 1771.713135
311598.664766 7483157.985666 1739.565796
311640.687206 7483168.193431 1734.478760
311683.304505 7483179.690523 1727.886841
311726.486544 7483189.001954 1721.287903
311768.487923 7483199.483637 1717.316223
311810.918490 7483208.574723 1712.156433
311853.993355 7483218.900581 1705.615295
311895.547864 7483228.506865 1702.553528
311937.711765 7483238.666016 1697.281311
311978.969228 7483249.453157 1694.999084
312020.309125 7483260.173263 1691.733459
312060.735415 7483272.954804 1693.109131
312101.577041 7483284.989975 1692.989014
312141.923847 7483300.084910 1697.306030
312182.497322 7483314.116927 1701.577759
312223.722640 7483331.006953 1706.443848
312265.151132 7483345.740567 1711.976196
312307.130587 7483362.871438 1717.877197
312349.426285 7483379.899469 1724.358398
312392.692834 7483398.397555 1728.494812
312436.214814 7483416.032522 1733.000488
312480.511229 7483434.443390 1734.894897
312525.303673 7483451.926922 1735.896240
312570.398133 7483469.902564 1735.472290
312615.805198 7483487.240949 1734.965210
312661.342261 7483504.789688 1733.434937
312707.169034 7483521.800218 1731.838623
312752.661287 7483539.439043 1732.510132
312798.494546 7483556.472919 1731.996887
312844.918135 7483572.533611 1727.294250
312891.625871 7483588.125889 1722.557312
312938.600885 7483602.944389 1714.930054
312985.625443 7483617.752986 1709.200989
313032.483013 7483632.883442 1705.398010
313079.363183 7483647.901998 1702.359558
313126.264306 7483663.462628 1702.252136
313172.975099 7483679.091821 1702.724976
313220.307542 7483694.338906 1702.980652
313267.535015 7483709.186803 1702.279297
313315.203348 7483724.426743 1703.820557
313362.800693 7483738.785159 1702.991028
313410.554535 7483754.733171 1707.623291
313457.939326 7483770.171091 1710.661682
313505.843585 7483786.535791 1716.815186
313552.998711 7483803.257011 1723.303223
313601.286989 7483819.096975 1727.906555
313648.698626 7483835.703213 1733.780701
313697.678204 7483849.847272 1733.998596
313745.796939 7483864.720292 1735.703430
313795.199983 7483877.842381 1733.530823
313843.701465 7483891.691410 1733.080505
313892.662270 7483906.411161 1734.468445
313940.772112 7483921.537092 1736.352356
313988.206826 7483941.208778 1747.713501
314034.974872 7483960.882101 1757.259583
314082.049341 7483981.734699 1769.266174
314128.960801 7484001.161306 1776.618042
314176.796827 7484019.208853 1781.162109
314223.965458 7484037.584464 1785.397461
314272.008205 7484054.188851 1785.955872
314318.992968 7484072.578985 1789.400940
314367.008815 7484087.965515 1786.841125
314413.932709 7484105.629097 1788.340637
314461.501070 7484120.713330 1784.872803
314508.132431 7484138.340454 1785.815491
314555.226233 7484152.641966 1780.819214
314602.031137 7484167.145517 1777.106689
314648.206989 7484182.703685 1773.479309
314695.028730 7484194.065012 1765.493958
314740.123119 7484212.128007 1764.364563
314786.100524 7484225.396766 1758.382385
314830.414941 7484243.468368 1756.399292
314875.351132 7484261.483978 1753.841064
314918.616936 7484280.156283 1751.865173
314962.877549 7484299.289964 1749.369995
315004.690848 7484322.791589 1753.250183
315048.709840 7484341.657411 1752.298340
315089.511328 7484366.161259 1754.696289
315131.800201 7484392.617929 1757.048584
315170.464950 7484416.895599 1760.275269
311490.677760 7483168.889093 1752.085449
311580.855348 7483200.400957 1742.683350
311666.089946 7483223.395141 1729.499512
311708.091325 7483233.876823 1725.527832
311750.092705 7483244.358506 1721.556152
311793.167570 7483254.684364 1715.015015
311836.242435 7483265.010222 1708.473877
311878.406336 7483275.169373 1703.201660
311920.570236 7483285.328524 1697.929443
311961.910133 7483296.048630 1694.663818
312003.250030 7483306.768735 1691.398193
312044.091656 7483318.803906 1691.278076
312084.933282 7483330.839078 1691.157959
312125.506757 7483344.871095 1695.429688
312166.080233 7483358.903112 1699.701416
312207.508725 7483373.636727 1705.233765
312248.937217 7483388.370341 1710.766113
312291.232915 7483405.398372 1717.247314
312333.528613 7483422.426403 1723.728516
312377.050594 7483440.061369 1728.234192
312420.572575 7483457.696336 1732.739868
312465.365018 7483475.179868 1733.741211
312510.157462 7483492.663401 1734.742554
312555.564528 7483510.001785 1734.235474
312600.971593 7483527.340170 1733.728394
312646.798367 7483544.350700 1732.132080
312692.625140 7483561.361230 1730.535767
312738.458399 7483578.395105 1730.022522
312784.291657 7483595.428981 1729.509277
312830.999393 7483611.021259 1724.772339
312877.707128 7483626.613537 1720.035400
312924.731686 7483641.422134 1714.306335
312971.756243 7483656.230731 1708.577271
313018.636413 7483671.249287 1705.538818
313065.516583 7483686.267843 1702.500366
313112.227376 7483701.897035 1702.973206
313158.938170 7483717.526228 1703.446045
313206.165643 7483732.374125 1702.744690
313253.393116 7483747.222022 1702.043335
313300.990460 7483761.580438 1701.213806
313348.587804 7483775.938854 1700.384277
313395.972595 7483791.376775 1703.422668
313443.357385 7483806.814695 1706.461060
313490.512511 7483823.535916 1712.949097
313537.667638 7483840.257136 1719.437134
313585.079275 7483856.863374 1725.311279
313632.490912 7483873.469611 1731.185425
313680.609647 7483888.342631 1732.890259
313728.728382 7483903.215652 1734.595093
313777.229864 7483917.064680 1734.144775
313825.731346 7483930.913709 1733.694458
313873.841189 7483946.039640 1735.578369
313921.951031 7483961.165570 1737.462280
313968.719077 7483980.838893 1747.008362
314015.487123 7484000.512215 1756.554443
314062.398583 7484019.938821 1763.906311
314109.310043 7484039.365428 1771.258179
314156.478674 7484057.741039 1775.493530
314203.647304 7484076.116651 1779.728882
314250.632067 7484094.506785 1783.173950
314297.616830 7484112.896918 1786.619019
314344.540724 7484130.560500 1788.118530
314391.464618 7484148.224082 1789.618042
314438.095979 7484165.851207 1790.560730
314484.727340 7484183.478331 1791.503418
314531.532243 7484197.981883 1787.790894
314578.337147 7484212.485434 1784.078369
314625.158888 7484223.846762 1776.093018
314671.980629 7484235.208089 1768.107666
314717.958035 7484248.476848 1762.125488
314763.935440 7484261.745606 1756.143311
314808.871631 7484279.761216 1753.585083
314853.807821 7484297.776826 1751.026855
314898.068434 7484316.910506 1748.531677
314942.329047 7484336.044187 1746.036499
314986.348038 7484354.910009 1745.084656
315030.367029 7484373.775831 1744.132813
315114.944775 7484426.689171 1748.837402
315194.329230 7484491.095237 1754.756836
311647.743883 7483267.011385 1731.944824
311689.745263 7483277.493068 1727.973145
311733.026466 7483288.823803 1722.453857
311776.101332 7483299.149661 1715.912720
311817.744333 7483309.993307 1712.174561
311859.908233 7483320.152457 1706.902344
311901.331621 7483330.853826 1702.016541
311942.671518 7483341.573932 1698.750916
311983.635147 7483352.657060 1696.003601
312024.476774 7483364.692231 1695.883484
312065.978658 7483376.607455 1694.696472
312106.552133 7483390.639472 1698.968201
312147.968856 7483403.133318 1702.772400
312189.397348 7483417.866932 1708.304749
312231.445932 7483432.767802 1714.334839
312273.741630 7483449.795833 1720.816040
312316.807932 7483465.864035 1726.224976
312360.329913 7483483.499002 1730.730652
312404.820840 7483499.912337 1732.726746
312449.613284 7483517.395869 1733.728088
312495.032556 7483533.891638 1733.241943
312540.439622 7483551.230022 1732.734863
312585.979067 7483568.117350 1732.772400
312631.805840 7483585.127880 1731.176086
312678.237233 7483601.253169 1727.883484
312724.070492 7483618.287045 1727.370239
312770.138349 7483634.854720 1726.481812
312816.846084 7483650.446997 1721.744873
312863.529548 7483666.058978 1718.443298
312910.554106 7483680.867575 1712.714233
312957.577827 7483695.707157 1708.348206
313004.457997 7483710.725713 1705.309753
313051.373687 7483725.546436 1702.460388
313098.084480 7483741.175628 1702.933228
313144.712689 7483756.518371 1702.922668
313191.940162 7483771.366268 1702.221313
313238.864225 7483786.216366 1701.958008
313286.461570 7483800.574781 1701.128479
313333.512160 7483815.301764 1701.567810
313380.896950 7483830.739685 1704.606201
313427.825315 7483846.006693 1707.153259
313474.980441 7483862.727913 1713.641296
313521.605057 7483879.224060 1719.188477
313569.016694 7483895.830298 1725.062622
313615.940950 7483911.977858 1729.601379
313664.059685 7483926.850879 1731.306213
313711.504102 7483941.861365 1733.158997
313760.005585 7483955.710394 1732.708679
313807.568695 7483970.525143 1733.918579
313855.678538 7483985.651074 1735.802490
313903.123243 7484000.648515 1737.296326
313949.891289 7484020.321837 1746.842407
313997.981512 7484037.600675 1750.631287
314044.892972 7484057.027282 1757.983154
314091.749000 7484074.379562 1761.849792
314138.917630 7484092.755174 1766.085144
314183.664880 7484112.872958 1772.579834
314230.649643 7484131.263091 1776.024902
314276.575694 7484151.749939 1782.120178
314323.499587 7484169.413521 1783.619690
314369.658301 7484188.113219 1786.454590
314416.289662 7484205.740343 1787.397278
314462.274741 7484224.676520 1789.865540
314509.079645 7484239.180071 1786.153015
314556.818525 7484255.495308 1784.670837
314603.640266 7484266.856635 1776.685486
314649.967700 7484280.154145 1773.336487
314695.945105 7484293.422903 1767.354309
314741.163295 7484300.332378 1759.864380
314786.099486 7484318.347988 1757.306152
314831.793301 7484334.043903 1749.583740
314876.053914 7484353.177584 1747.088562
314920.756484 7484373.557911 1741.318298
314964.775475 7484392.423732 1740.366455
311538.419522 7483279.426271 1748.516235
311629.397821 7483310.627630 1734.390137
311715.960228 7483333.289101 1723.351563
311757.603229 7483344.132746 1719.613403
311799.246230 7483354.976391 1715.875244
311840.669618 7483365.677760 1710.989441
311882.093006 7483376.379129 1706.103638
311923.056635 7483387.462257 1703.356323
311964.020265 7483398.545385 1700.609009
312005.522150 7483410.460608 1699.421997
312047.024034 7483422.375832 1698.234985
312088.440757 7483434.869678 1702.039185
312129.857479 7483447.363524 1705.843384
312171.906063 7483462.264393 1711.873474
312213.954648 7483477.165263 1717.903564
312257.020949 7483493.233466 1723.312500
312300.087251 7483509.301668 1728.721436
312344.578178 7483525.715003 1730.717529
312389.069106 7483542.128338 1732.713623
312434.488378 7483558.624106 1732.227478
312479.907650 7483575.119875 1731.741333
312525.447095 7483592.007202 1731.778870
312570.986540 7483608.894530 1731.816406
312617.417933 7483625.019819 1728.523804
312663.849326 7483641.145108 1725.231201
312709.917183 7483657.712783 1724.342773
312755.985041 7483674.280458 1723.454346
312802.668505 7483689.892438 1720.152771
312849.351969 7483705.504419 1716.851196
312896.375690 7483720.344001 1712.485168
312943.399410 7483735.183583 1708.119141
312990.315101 7483750.004306 1705.269775
313037.230791 7483764.825029 1702.420410
313083.859000 7483780.167771 1702.409851
313130.487209 7483795.510513 1702.399292
313177.411272 7483810.360611 1702.135986
313224.335335 7483825.210709 1701.872681
313271.385925 7483839.937692 1702.312012
313318.436515 7483854.664675 1702.751343
313365.364880 7483869.931683 1705.298401
313412.293244 7483885.198691 1707.845459
313458.917860 7483901.694838 1713.392639
313505.542476 7483918.190985 1718.939819
313552.466732 7483934.338545 1723.478577
313599.390987 7483950.486106 1728.017334
313646.835405 7483965.496592 1729.870117
313694.279823 7483980.507079 1731.722900
313741.842934 7483995.321828 1732.932800
313789.406044 7484010.136577 1734.142700
313836.850750 7484025.134018 1735.636536
313884.295456 7484040.131460 1737.130371
313932.385678 7484057.410298 1740.919250
313980.475901 7484074.689136 1744.708130
314027.331929 7484092.041416 1748.574768
314074.187957 7484109.393696 1752.441406
314118.935206 7484129.511480 1758.936096
314163.682456 7484149.629264 1765.430786
314209.608506 7484170.116112 1771.526062
314255.534557 7484190.602960 1777.621338
314301.693270 7484209.302658 1780.456238
314347.851984 7484228.002355 1783.291138
314393.837063 7484246.938532 1785.759399
314439.822143 7484265.874708 1788.227661
314487.561023 7484282.189945 1786.745483
314535.299902 7484298.505181 1785.263306
314581.627336 7484311.802690 1781.914307
314627.954770 7484325.100200 1778.565308
314673.172960 7484332.009675 1771.075378
314718.391150 7484338.919150 1763.585449
314809.778781 7484370.310981 1748.140625
314899.183921 7484411.071634 1736.600098
314985.321035 7484461.295252 1733.262207
311698.987517 7483377.311198 1725.393921
311740.630518 7483388.154844 1721.655762
311778.919537 7483398.151800 1718.695435
311820.342925 7483408.853169 1713.809631
311860.588584 7483420.714260 1712.476929
311901.552213 7483431.797388 1709.729614
311942.214564 7483443.584980 1708.584717
311983.716449 7483455.500203 1707.397705
312026.613609 7483466.591749 1705.212402
312068.030332 7483479.085595 1709.016602
312110.734094 7483492.262699 1712.183960
312152.782678 7483507.163569 1718.214050
312196.152796 7483521.459796 1722.211182
312239.219097 7483537.527998 1727.620117
312283.484704 7483552.654823 1730.360107
312327.975631 7483569.068158 1732.356201
312373.350982 7483584.481367 1732.175293
312418.770254 7483600.977136 1731.689148
312464.566267 7483616.797630 1730.759705
312510.105712 7483633.684957 1730.797241
312556.049841 7483649.903706 1729.930481
312602.481234 7483666.028995 1726.637878
312649.209653 7483681.695288 1723.187561
312695.277511 7483698.262963 1722.299133
312741.147176 7483715.031715 1722.866821
312787.830640 7483730.643695 1719.565247
312834.543335 7483746.274206 1716.974243
312881.567056 7483761.113788 1712.608215
312928.824310 7483775.662162 1707.941345
312975.740000 7483790.482885 1705.091980
313022.773700 7483804.950845 1701.753601
313069.401909 7483820.293588 1701.743042
313115.952604 7483835.271087 1701.218994
313162.876667 7483850.121185 1700.955688
313209.111783 7483865.603700 1702.696289
313256.162373 7483880.330683 1703.135620
313302.338371 7483896.062555 1706.067871
313349.266735 7483911.329563 1708.614929
313395.066170 7483928.247440 1714.408936
313441.690786 7483944.743587 1719.956116
313487.978549 7483960.763820 1724.138489
313534.902804 7483976.911381 1728.677246
313581.905566 7483991.150653 1729.627991
313629.349984 7484006.161140 1731.480774
313677.346187 7484020.540458 1730.726196
313724.909298 7484035.355207 1731.936096
313772.209151 7484049.076368 1731.466064
313819.653856 7484064.073809 1732.959900
313866.977472 7484077.636107 1732.029053
313915.067694 7484094.914945 1735.817932
313961.860848 7484109.866070 1736.683716
314008.716876 7484127.218351 1740.550354
314053.244189 7484146.011232 1747.297607
314097.991438 7484166.129016 1753.792297
314144.254299 7484189.035174 1763.526184
314190.180349 7484209.522022 1769.621460
314234.049131 7484231.100088 1776.272339
314280.207844 7484249.799785 1779.107239
314325.912953 7484268.959271 1781.589355
314371.898033 7484287.895448 1784.057617
314417.137195 7484307.010868 1787.775330
314464.876074 7484323.326104 1786.293152
314510.857600 7484343.705547 1787.269714
314557.185034 7484357.003057 1783.920715
314603.092438 7484372.853996 1781.627380
314648.310628 7484379.763471 1774.137451
311585.966411 7483391.717002 1739.695801
311682.014806 7483421.333296 1727.436279
311758.592844 7483441.327210 1721.515625
311798.838503 7483453.188301 1720.182922
311839.084162 7483465.049392 1718.850220
311879.746513 7483476.836983 1717.705322
311920.408863 7483488.624575 1716.560425
311963.306024 7483499.716120 1714.375122
312006.203184 7483510.807666 1712.189819
312048.906947 7483523.984770 1715.357178
312091.610709 7483537.161874 1718.524536
312134.980826 7483551.458101 1722.521667
312178.350944 7483565.754328 1726.518799
312222.616550 7483580.881153 1729.258789
312266.882157 7483596.007979 1731.998779
312312.257508 7483611.421187 1731.817871
312357.632859 7483626.834396 1731.636963
312403.428871 7483642.654890 1730.707520
312449.224883 7483658.475385 1729.778076
312495.169013 7483674.694133 1728.911316
312541.113142 7483690.912881 1728.044556
312587.841562 7483706.579175 1724.594238
312634.569981 7483722.245468 1721.143921
312680.439646 7483739.014220 1721.711609
312726.309311 7483755.782972 1722.279297
312773.022006 7483771.413482 1719.688293
312819.734701 7483787.043992 1717.097290
312866.991955 7483801.592366 1712.430420
312914.249209 7483816.140740 1707.763550
312961.282910 7483830.608701 1704.425171
313008.316610 7483845.076662 1701.086792
313054.867304 7483860.054161 1700.562744
313101.417998 7483875.031661 1700.038696
313147.653115 7483890.514176 1701.779297
313193.888231 7483905.996691 1703.519897
313240.064229 7483921.728563 1706.452148
313286.240227 7483937.460434 1709.384399
313332.039661 7483954.378312 1715.178406
313377.839096 7483971.296189 1720.972412
313424.126859 7483987.316422 1725.154785
313470.414621 7484003.336656 1729.337158
313517.417383 7484017.575928 1730.287903
313564.420145 7484031.815200 1731.238647
313612.416348 7484046.194519 1730.484070
313660.412551 7484060.573837 1729.729492
313707.712404 7484074.294998 1729.259460
313755.012257 7484088.016159 1728.789429
313802.335873 7484101.578457 1727.858582
313849.659488 7484115.140754 1726.927734
313896.452641 7484130.091880 1727.793518
313943.245795 7484145.043005 1728.659302
313987.773108 7484163.835886 1735.406555
314032.300420 7484182.628767 1742.153809
314078.563281 7484205.534925 1751.887695
314124.826142 7484228.441084 1761.621582
314168.694923 7484250.019150 1768.272461
314212.563705 7484271.597215 1774.923340
314258.268814 7484290.756701 1777.405457
314303.973923 7484309.916187 1779.887573
314349.213084 7484329.031607 1783.605286
314394.452246 7484348.147028 1787.322998
314486.415297 7484388.905914 1789.276123
314578.230105 7484420.607793 1784.689453
314675.218472 7484438.708278 1768.557129
311736.249451 7483483.443441 1723.943970
311776.495110 7483495.304532 1722.611267
311816.577567 7483508.420333 1723.013733
311857.239918 7483520.207925 1721.868835
311899.051001 7483531.461495 1721.561035
311941.948161 7483542.553040 1719.375732
311986.459022 7483554.796614 1717.017029
312029.162784 7483567.973718 1720.184387
312073.574211 7483580.934434 1721.326965
312116.944328 7483595.230661 1725.324097
312160.973646 7483609.357889 1729.195801
312205.239253 7483624.484715 1731.935791
312250.046855 7483639.215321 1733.916077
312295.422205 7483654.628530 1733.735168
312341.273049 7483669.505206 1732.776917
312387.069061 7483685.325700 1731.847473
312433.046264 7483700.818744 1731.011414
312478.990393 7483717.037493 1730.144653
312525.733133 7483732.398332 1727.110657
312572.461553 7483748.064625 1723.660339
312619.237724 7483763.710565 1720.849915
312665.107390 7483780.479317 1721.417603
312710.887197 7483797.450246 1722.546570
312757.599892 7483813.080757 1719.955566
312804.219888 7483829.016781 1718.144653
312851.477143 7483843.565155 1713.477783
312898.752766 7483858.246076 1709.209167
312945.786466 7483872.714037 1705.870789
312992.884868 7483887.056003 1702.254761
313039.435562 7483902.033503 1701.730713
313085.781590 7483916.993237 1701.262878
313132.016707 7483932.475752 1703.003479
313177.638122 7483948.392577 1705.987183
313223.814120 7483964.124449 1708.919434
313269.116974 7483980.654446 1713.845215
313314.916408 7483997.572323 1719.639221
313360.461813 7484013.894490 1724.110168
313406.749576 7484029.914723 1728.292542
313453.002017 7484044.787188 1730.358032
313500.004779 7484059.026460 1731.308777
313546.958119 7484071.727514 1730.165955
313594.954322 7484086.106833 1729.411377
313642.444488 7484099.031191 1727.743530
313689.744341 7484112.752352 1727.273499
313736.587250 7484125.272549 1726.222107
313783.910865 7484138.834846 1725.291260
313830.580890 7484153.704768 1724.799622
313877.374043 7484168.655894 1725.665405
313923.347428 7484185.434363 1727.341248
313967.874740 7484204.227244 1734.088501
314013.457272 7484220.472980 1737.299805
314059.720132 7484243.379138 1747.033691
314104.507521 7484264.376509 1754.784302
314148.376303 7484285.954575 1761.435181
314193.294792 7484306.692180 1769.230347
314238.999901 7484325.851666 1771.712463
314282.124588 7484351.867552 1777.920227
314327.363749 7484370.982972 1781.637939
311640.249204 7483498.487195 1728.697754
311713.906059 7483525.559671 1726.372314
311753.988515 7483538.675473 1726.774780
311794.070972 7483551.791274 1727.177246
311835.882055 7483563.044844 1726.869446
311877.693139 7483574.298414 1726.561646
311922.203999 7483586.541988 1724.202942
311966.714859 7483598.785563 1721.844238
312011.126286 7483611.746278 1722.986816
312055.537713 7483624.706993 1724.129395
312099.567031 7483638.834222 1728.001099
312143.596348 7483652.961451 1731.872803
312188.403950 7483667.692057 1733.853088
312233.211552 7483682.422664 1735.833374
312279.062396 7483697.299340 1734.875122
312324.913239 7483712.176016 1733.916870
312370.890442 7483727.669060 1733.080811
312416.867644 7483743.162104 1732.244751
312463.610385 7483758.522943 1729.210754
312510.353125 7483773.883782 1726.176758
312557.129296 7483789.529722 1723.366333
312603.905468 7483805.175661 1720.555908
312649.685276 7483822.146591 1721.684875
312695.465084 7483839.117521 1722.813843
312742.085080 7483855.053545 1721.002930
312788.705076 7483870.989570 1719.192017
312835.980699 7483885.670491 1714.923401
312883.256323 7483900.351412 1710.654785
312930.354725 7483914.693379 1707.038757
312977.453127 7483929.035345 1703.422729
313023.799154 7483943.995079 1702.954895
313070.145182 7483958.954813 1702.487061
313115.766598 7483974.871638 1705.470764
313161.388013 7483990.788463 1708.454468
313206.690867 7484007.318460 1713.380249
313251.993721 7484023.848457 1718.306030
313297.539125 7484040.170624 1722.776978
313343.084530 7484056.492791 1727.247925
313389.336971 7484071.365255 1729.313416
313435.589413 7484086.237720 1731.378906
313482.542753 7484098.938774 1730.236084
313529.496093 7484111.639828 1729.093262
313576.986259 7484124.564186 1727.425415
313624.476424 7484137.488545 1725.757568
313671.319333 7484150.008742 1724.706177
313718.162243 7484162.528939 1723.654785
313764.832267 7484177.398861 1723.163147
313811.502291 7484192.268782 1722.671509
313857.475676 7484209.047252 1724.347351
313903.449060 7484225.825722 1726.023193
313949.031592 7484242.071457 1729.234497
313994.614123 7484258.317193 1732.445801
314084.188901 7484300.311935 1747.947021
314174.025878 7484341.787144 1763.537354
314260.275252 7484393.818916 1775.952881
314350.728976 7484441.722793 1783.353760
311689.901722 7483567.282415 1727.649170
311729.984178 7483580.398217 1728.051636
311771.688331 7483593.082719 1727.215393
311813.499414 7483604.336289 1726.907593
311857.930375 7483616.961483 1726.915955
311902.441235 7483629.205058 1724.557251
311948.219370 7483641.604547 1723.911438
311992.630797 7483654.565262 1725.054016
312038.055574 7483667.534051 1725.886108
312082.084891 7483681.661280 1729.757813
312127.045919 7483695.465359 1731.573486
312171.853521 7483710.195966 1733.553772
312216.981131 7483724.634237 1734.923218
312262.831975 7483739.510913 1733.964966
312308.416351 7483754.434566 1734.355164
312354.393553 7483769.927609 1733.519104
312400.333932 7483785.400473 1733.318115
312447.076673 7483800.761312 1730.284119
312493.767043 7483816.275997 1728.066101
312540.543214 7483831.921936 1725.255676
312587.786977 7483847.326466 1721.446899
312633.566785 7483864.297396 1722.575867
312679.939120 7483880.852007 1721.717896
312726.559116 7483896.788031 1719.906982
312772.913053 7483913.358805 1719.088806
312820.188676 7483928.039726 1714.820190
312866.954319 7483943.711740 1712.457397
312914.052721 7483958.053706 1708.841370
312960.654005 7483973.267943 1706.886047
313007.000033 7483988.227677 1706.418213
313052.954621 7484003.689546 1706.708191
313098.576037 7484019.606371 1709.691895
313143.936601 7484035.398151 1712.366516
313189.239455 7484051.928148 1717.292297
313234.790527 7484066.747662 1719.760132
313280.335931 7484083.069829 1724.231079
313325.915284 7484097.634335 1726.566467
313372.167725 7484112.506800 1728.631958
313418.417793 7484125.961423 1728.733337
313465.371133 7484138.662477 1727.590515
313511.699193 7484151.465451 1726.802063
313559.189359 7484164.389809 1725.134216
313605.733203 7484177.833902 1724.839661
313652.576112 7484190.354099 1723.788269
313699.308783 7484198.583764 1722.046265
313745.978807 7484213.453685 1721.554626
313791.960851 7484230.593398 1720.468689
313837.934236 7484247.371868 1722.144531
313883.537871 7484266.925888 1722.203003
313929.120402 7484283.171623 1725.414307
311585.812139 7483576.852245 1731.426392
311665.897385 7483609.005159 1728.926025
311749.305690 7483634.374164 1727.253540
311793.736650 7483646.999358 1727.261902
311838.167611 7483659.624553 1727.270264
311883.945746 7483672.024042 1726.624451
311929.723881 7483684.423531 1725.978638
311975.148658 7483697.392319 1726.810730
312020.573435 7483710.361108 1727.642822
312065.534462 7483724.165188 1729.458496
312110.495490 7483737.969267 1731.274170
312155.623100 7483752.407539 1732.643616
312200.750711 7483766.845810 1734.013062
312246.335086 7483781.769463 1734.403259
312291.919462 7483796.693115 1734.793457
312337.859841 7483812.165978 1734.592468
312383.800221 7483827.638841 1734.391479
312430.490591 7483843.153526 1732.173462
312477.180960 7483858.668212 1729.955444
312524.424723 7483874.072741 1726.146667
312571.668486 7483889.477271 1722.337891
312618.040822 7483906.031882 1721.479919
312664.413157 7483922.586493 1720.621948
312710.767093 7483939.157267 1719.803772
312757.121029 7483955.728040 1718.985596
312803.886672 7483971.400053 1716.622803
312850.652315 7483987.072067 1714.260010
312897.253599 7484002.286304 1712.304688
312943.854883 7484017.500541 1710.349365
312989.809472 7484032.962410 1710.639343
313035.764060 7484048.424279 1710.929321
313081.124625 7484064.216059 1713.603943
313126.485190 7484080.007839 1716.278564
313172.036261 7484094.827354 1718.746399
313217.587332 7484109.646868 1721.214233
313263.166685 7484124.211374 1723.549622
